  0.000000      0.000000      0.000000
  1.000000      0.000000      0.000000
  1.000000      1.500000      0.000000
  0.000000      1.500000      0.000000
  0.000000      0.000000      8.000000
  1.000000      0.000000      8.000000
  1.000000      1.500000      8.000000
  0.000000      1.500000      8.000000
  0.250000      0.000000      0.000000
  0.500000      0.000000      0.000000
  0.750000      0.000000      0.000000
  1.000000      0.375000      0.000000
  1.000000      0.750000      0.000000
  1.000000      1.125000      0.000000
  0.750000      1.500000      0.000000
  0.500000      1.500000      0.000000
  0.250000      1.500000      0.000000
  0.000000      1.125000      0.000000
  0.000000      0.750000      0.000000
  0.000000      0.375000      0.000000
  0.250000      0.000000      8.000000
  0.500000      0.000000      8.000000
  0.750000      0.000000      8.000000
  1.000000      0.375000      8.000000
  1.000000      0.750000      8.000000
  1.000000      1.125000      8.000000
  0.750000      1.500000      8.000000
  0.500000      1.500000      8.000000
  0.250000      1.500000      8.000000
  0.000000      1.125000      8.000000
  0.000000      0.750000      8.000000
  0.000000      0.375000      8.000000
  1.000000      0.000000      0.500000
  1.000000      0.000000      1.000000
  1.000000      0.000000      1.500000
  1.000000      0.000000      2.000000
  1.000000      0.000000      2.500000
  1.000000      0.000000      3.000000
  1.000000      0.000000      3.500000
  1.000000      0.000000      4.000000
  1.000000      0.000000      4.500000
  1.000000      0.000000      5.000000
  1.000000      0.000000      5.500000
  1.000000      0.000000      6.000000
  1.000000      0.000000      6.500000
  1.000000      0.000000      7.000000
  1.000000      0.000000      7.500000
  0.000000      0.000000      7.500000
  0.000000      0.000000      7.000000
  0.000000      0.000000      6.500000
  0.000000      0.000000      6.000000
  0.000000      0.000000      5.500000
  0.000000      0.000000      5.000000
  0.000000      0.000000      4.500000
  0.000000      0.000000      4.000000
  0.000000      0.000000      3.500000
  0.000000      0.000000      3.000000
  0.000000      0.000000      2.500000
  0.000000      0.000000      2.000000
  0.000000      0.000000      1.500000
  0.000000      0.000000      1.000000
  0.000000      0.000000      0.500000
  1.000000      1.500000      0.500000
  1.000000      1.500000      1.000000
  1.000000      1.500000      1.500000
  1.000000      1.500000      2.000000
  1.000000      1.500000      2.500000
  1.000000      1.500000      3.000000
  1.000000      1.500000      3.500000
  1.000000      1.500000      4.000000
  1.000000      1.500000      4.500000
  1.000000      1.500000      5.000000
  1.000000      1.500000      5.500000
  1.000000      1.500000      6.000000
  1.000000      1.500000      6.500000
  1.000000      1.500000      7.000000
  1.000000      1.500000      7.500000
  0.000000      1.500000      0.500000
  0.000000      1.500000      1.000000
  0.000000      1.500000      1.500000
  0.000000      1.500000      2.000000
  0.000000      1.500000      2.500000
  0.000000      1.500000      3.000000
  0.000000      1.500000      3.500000
  0.000000      1.500000      4.000000
  0.000000      1.500000      4.500000
  0.000000      1.500000      5.000000
  0.000000      1.500000      5.500000
  0.000000      1.500000      6.000000
  0.000000      1.500000      6.500000
  0.000000      1.500000      7.000000
  0.000000      1.500000      7.500000
  0.500000      0.375000      0.000000
  0.250000      0.750000      0.000000
  0.500000      0.750000      0.000000
  0.750000      0.750000      0.000000
  0.500000      1.125000      0.000000
  0.500000      0.375000      8.000000
  0.250000      0.750000      8.000000
  0.500000      0.750000      8.000000
  0.750000      0.750000      8.000000
  0.500000      1.125000      8.000000
  0.500000      0.000000      0.500000
  0.250000      0.000000      1.000000
  0.500000      0.000000      1.000000
  0.750000      0.000000      1.000000
  0.500000      0.000000      1.500000
  0.250000      0.000000      2.000000
  0.500000      0.000000      2.000000
  0.750000      0.000000      2.000000
  0.500000      0.000000      2.500000
  0.250000      0.000000      3.000000
  0.500000      0.000000      3.000000
  0.750000      0.000000      3.000000
  0.500000      0.000000      3.500000
  0.250000      0.000000      4.000000
  0.500000      0.000000      4.000000
  0.750000      0.000000      4.000000
  0.500000      0.000000      4.500000
  0.250000      0.000000      5.000000
  0.500000      0.000000      5.000000
  0.750000      0.000000      5.000000
  0.500000      0.000000      5.500000
  0.250000      0.000000      6.000000
  0.500000      0.000000      6.000000
  0.750000      0.000000      6.000000
  0.500000      0.000000      6.500000
  0.250000      0.000000      7.000000
  0.500000      0.000000      7.000000
  0.750000      0.000000      7.000000
  0.500000      0.000000      7.500000
  1.000000      0.750000      0.500000
  1.000000      0.375000      1.000000
  1.000000      0.750000      1.000000
  1.000000      1.125000      1.000000
  1.000000      0.750000      1.500000
  1.000000      0.375000      2.000000
  1.000000      0.750000      2.000000
  1.000000      1.125000      2.000000
  1.000000      0.750000      2.500000
  1.000000      0.375000      3.000000
  1.000000      0.750000      3.000000
  1.000000      1.125000      3.000000
  1.000000      0.750000      3.500000
  1.000000      0.375000      4.000000
  1.000000      0.750000      4.000000
  1.000000      1.125000      4.000000
  1.000000      0.750000      4.500000
  1.000000      0.375000      5.000000
  1.000000      0.750000      5.000000
  1.000000      1.125000      5.000000
  1.000000      0.750000      5.500000
  1.000000      0.375000      6.000000
  1.000000      0.750000      6.000000
  1.000000      1.125000      6.000000
  1.000000      0.750000      6.500000
  1.000000      0.375000      7.000000
  1.000000      0.750000      7.000000
  1.000000      1.125000      7.000000
  1.000000      0.750000      7.500000
  0.500000      1.500000      0.500000
  0.750000      1.500000      1.000000
  0.500000      1.500000      1.000000
  0.250000      1.500000      1.000000
  0.500000      1.500000      1.500000
  0.750000      1.500000      2.000000
  0.500000      1.500000      2.000000
  0.250000      1.500000      2.000000
  0.500000      1.500000      2.500000
  0.750000      1.500000      3.000000
  0.500000      1.500000      3.000000
  0.250000      1.500000      3.000000
  0.500000      1.500000      3.500000
  0.750000      1.500000      4.000000
  0.500000      1.500000      4.000000
  0.250000      1.500000      4.000000
  0.500000      1.500000      4.500000
  0.750000      1.500000      5.000000
  0.500000      1.500000      5.000000
  0.250000      1.500000      5.000000
  0.500000      1.500000      5.500000
  0.750000      1.500000      6.000000
  0.500000      1.500000      6.000000
  0.250000      1.500000      6.000000
  0.500000      1.500000      6.500000
  0.750000      1.500000      7.000000
  0.500000      1.500000      7.000000
  0.250000      1.500000      7.000000
  0.500000      1.500000      7.500000
  0.000000      0.750000      0.500000
  0.000000      1.125000      1.000000
  0.000000      0.750000      1.000000
  0.000000      0.375000      1.000000
  0.000000      0.750000      1.500000
  0.000000      1.125000      2.000000
  0.000000      0.750000      2.000000
  0.000000      0.375000      2.000000
  0.000000      0.750000      2.500000
  0.000000      1.125000      3.000000
  0.000000      0.750000      3.000000
  0.000000      0.375000      3.000000
  0.000000      0.750000      3.500000
  0.000000      1.125000      4.000000
  0.000000      0.750000      4.000000
  0.000000      0.375000      4.000000
  0.000000      0.750000      4.500000
  0.000000      1.125000      5.000000
  0.000000      0.750000      5.000000
  0.000000      0.375000      5.000000
  0.000000      0.750000      5.500000
  0.000000      1.125000      6.000000
  0.000000      0.750000      6.000000
  0.000000      0.375000      6.000000
  0.000000      0.750000      6.500000
  0.000000      1.125000      7.000000
  0.000000      0.750000      7.000000
  0.000000      0.375000      7.000000
  0.000000      0.750000      7.500000
  0.500000      0.750000      0.500000
  0.500000      0.375000      1.000000
  0.250000      0.750000      1.000000
  0.500000      0.750000      1.000000
  0.750000      0.750000      1.000000
  0.500000      1.125000      1.000000
  0.500000      0.750000      1.500000
  0.500000      0.375000      2.000000
  0.250000      0.750000      2.000000
  0.500000      0.750000      2.000000
  0.750000      0.750000      2.000000
  0.500000      1.125000      2.000000
  0.500000      0.750000      2.500000
  0.500000      0.375000      3.000000
  0.250000      0.750000      3.000000
  0.500000      0.750000      3.000000
  0.750000      0.750000      3.000000
  0.500000      1.125000      3.000000
  0.500000      0.750000      3.500000
  0.500000      0.375000      4.000000
  0.250000      0.750000      4.000000
  0.500000      0.750000      4.000000
  0.750000      0.750000      4.000000
  0.500000      1.125000      4.000000
  0.500000      0.750000      4.500000
  0.500000      0.375000      5.000000
  0.250000      0.750000      5.000000
  0.500000      0.750000      5.000000
  0.750000      0.750000      5.000000
  0.500000      1.125000      5.000000
  0.500000      0.750000      5.500000
  0.500000      0.375000      6.000000
  0.250000      0.750000      6.000000
  0.500000      0.750000      6.000000
  0.750000      0.750000      6.000000
  0.500000      1.125000      6.000000
  0.500000      0.750000      6.500000
  0.500000      0.375000      7.000000
  0.250000      0.750000      7.000000
  0.500000      0.750000      7.000000
  0.750000      0.750000      7.000000
  0.500000      1.125000      7.000000
  0.500000      0.750000      7.500000
